# .PCD v0.7 - Point Cloud Data file format
VERSION 0.7
FIELDS x y z
SIZE 4 4 4
TYPE F F F
COUNT 1 1 1
WIDTH 323
HEIGHT 1
VIEWPOINT 0 0 0 1 0 0 0
POINTS 323
DATA ascii
-0.10192373 -0.018398101 1.294
-0.093317524 -0.011011207 1.294
-0.092088059 -0.0085489098 1.294
-0.10807101 0.0062248758 1.294
-0.086760417 0.016894832 1.294
-0.12201838 -0.02216837 1.2985001
-0.11694819 -0.022143237 1.2970001
-0.11203984 -0.022147268 1.29725
-0.10706885 -0.022138732 1.2967499
-0.10204189 -0.02211763 1.2955
-0.097192831 -0.022134226 1.2965
-0.09237273 -0.022159833 1.2980001
-0.087406486 -0.022151299 1.2975001
-0.082443088 -0.022142762 1.2970001
-0.078024559 -0.021759566 1.2986667
-0.072696552 -0.020941002 1.299
-0.068993933 -0.020941002 1.299
-0.12201838 -0.017226651 1.2985001
-0.11690264 -0.017199641 1.2965
-0.1119753 -0.017199641 1.2965
-0.10698628 -0.017189931 1.29575
-0.10204235 -0.015954275 1.2955
-0.097136848 -0.017189929 1.29575
-0.092265978 -0.017200593 1.2965
-0.087305441 -0.01719396 1.296
-0.08233162 -0.017183771 1.2952501
-0.077468805 -0.017197514 1.29625
-0.072584629 -0.017207226 1.2969999
-0.12162249 -0.011874855 1.2986667
-0.11701559 -0.012278548 1.29775
-0.11210439 -0.012280676 1.2980001
-0.10708925 -0.012270737 1.2970001
-0.10212111 -0.012266007 1.2965
-0.097155824 -0.012261277 1.296
-0.091773137 -0.012665987 1.2953334
-0.087237597 -0.012251818 1.2950001
-0.082315966 -0.012251818 1.2950001
-0.077409044 -0.012254421 1.2952501
-0.072514445 -0.01225915 1.29575
-0.12159148 -0.0069302982 1.2983334
-0.11692542 -0.0073335497 1.2967501
-0.11201848 -0.0073347259 1.2970001
-0.10708925 -0.0073347259 1.2970001
-0.10212111 -0.0073318984 1.2965
-0.097137317 -0.0073278947 1.29575
-0.092194334 -0.0060936678 1.2955
-0.087304965 -0.0073281201 1.296
-0.082379535 -0.0073281201 1.296
-0.077394336 -0.0073234159 1.2950001
-0.072500214 -0.0073262434 1.2955
-0.12199513 -0.0024012635 1.2982501
-0.11688033 -0.0023975647 1.29625
-0.11191077 -0.0023966401 1.29575
-0.10698581 -0.0023971156 1.29575
-0.10204189 -0.0023964155 1.2955
-0.097136848 -0.0023966401 1.29575
-0.092212364 -0.0023966401 1.29575
-0.087338641 -0.0023982651 1.2965
-0.082411312 -0.0023982651 1.2965
-0.077513859 -0.002398714 1.2970001
-0.072584629 -0.002398714 1.2970001
-0.12197188 0.0025392545 1.2980001
-0.11685755 0.002535342 1.296
-0.11188941 0.0025343639 1.2955
-0.10696493 0.0025343639 1.2955
-0.10212065 0.0025367958 1.2965
-0.097268268 0.002538752 1.2975001
-0.092337146 0.002538752 1.2975001
-0.087372802 0.0025377739 1.2970001
-0.082442619 0.0025377742 1.2970001
-0.077543743 0.0025387523 1.2975
-0.072640598 0.0025392547 1.2980001
-0.12192442 0.0074761915 1.2975
-0.11685755 0.0074675484 1.296
-0.11184575 0.0074617863 1.2950001
-0.1065684 0.0078763282 1.2956667
-0.10219893 0.007476192 1.2975001
-0.097324267 0.0074802749 1.2982501
-0.092390753 0.0074802749 1.2982501
-0.087439686 0.0074790725 1.2980001
-0.082506664 0.0074790725 1.2980001
-0.077573627 0.0074790721 1.2980001
-0.072640598 0.0074790725 1.2980001
-0.12187743 0.012408847 1.2970001
-0.11694773 0.012409323 1.2970001
-0.1119753 0.012405015 1.2965
-0.1070475 0.01240454 1.2965
-0.10217948 0.012411477 1.29725
-0.097212277 0.012406693 1.2967499
-0.092265978 0.012404064 1.2965
-0.087304965 0.012398804 1.296
-0.082426965 0.012406218 1.2967501
-0.07755845 0.01241626 1.29775
-0.072612613 0.01241363 1.2975001
-0.12180625 0.017335542 1.29625
-0.11697003 0.017349392 1.29725
-0.11208349 0.017356079 1.29775
-0.10708974 0.017345812 1.2970001
-0.1021401 0.017342228 1.2967499
-0.097174801 0.017335542 1.29625
-0.092177257 0.01732217 1.2952501
-0.088468008 0.018550688 1.2950001
-0.082315966 0.017318588 1.2950001
-0.077483505 0.017338648 1.2965
-0.072584629 0.017345335 1.2970001
-0.12192346 0.022289935 1.2975001
-0.11712806 0.022315705 1.299
-0.11210533 0.022298051 1.2980001
-0.10711014 0.022285404 1.29725
-0.10212064 0.022272281 1.2965
-0.097193308 0.022272283 1.2965
-0.092266455 0.022272758 1.2965
-0.087288365 0.022260111 1.29575
-0.082347751 0.022255104 1.2955
-0.077483982 0.022272283 1.2965
-0.072612137 0.022289935 1.2975001
-0.12206489 0.026023423 1.299
-0.11712806 0.027259327 1.299
-0.11206215 0.027227852 1.2975001
-0.10708925 0.027217358 1.2970001
-0.10216003 0.027217358 1.2970001
-0.097230315 0.027217833 1.2970001
-0.092408314 0.027249314 1.2985001
-0.08744017 0.02723882 1.2980001
-0.08247488 0.027228327 1.2975001
-0.077543743 0.027228329 1.2975001
-0.072668105 0.027248837 1.2985001
-0.12206489 0.030967046 1.299
-0.11671665 0.031790983 1.299
-0.11214805 0.032191034 1.2985001
-0.10761075 0.031775095 1.2983334
-0.10225872 0.032185074 1.2982501
-0.097742155 0.031775095 1.2983334
-0.092443891 0.030967046 1.299
-0.086272851 0.030967046 1.299
-0.082506664 0.030943209 1.2980001
-0.077633396 0.030967046 1.299
-0.072285153 0.031790983 1.299
-0.10271139 -0.025984257 1.304
-0.097717598 -0.025974294 1.3035001
-0.091560759 -0.025984257 1.304
-0.08781068 -0.025974294 1.3035001
-0.082855791 -0.025974294 1.3035001
-0.1261548 -0.022245197 1.3030001
-0.076458 -0.023430837 1.3000001
-0.07275252 -0.023430837 1.3000001
-0.067502603 -0.022640411 1.302
-0.12620321 -0.017292507 1.3035001
-0.067929015 -0.017276639 1.30225
-0.12620321 -0.01233271 1.3035001
-0.12339402 -0.013535978 1.3000001
-0.067864053 -0.012308581 1.3010001
-0.12625161 -0.0073743118 1.304
-0.12339402 -0.0085885487 1.3000001
-0.067837968 -0.0073540434 1.3005002
-0.1261548 -0.0024098104 1.3030001
-0.067890137 -0.0024075122 1.3015001
-0.12620321 0.0025495384 1.3035001
-0.067916214 0.0025470797 1.302
-0.12605797 0.0075021205 1.302
-0.068276092 0.0070837559 1.3010001
-0.12610638 0.01246147 1.3025
-0.069073603 0.012442334 1.3005002
-0.12596115 0.017398831 1.3010001
-0.069073603 0.017392617 1.3005002
-0.12596115 0.022350065 1.3010001
-0.069126718 0.022358177 1.3015001
-0.12620321 0.027354237 1.3035001
-0.12215886 0.028517172 1.3000001
-0.069153272 0.027322281 1.302
-0.12620321 0.032314986 1.3035001
-0.12215886 0.033464603 1.3000001
-0.11845339 0.033464603 1.3000001
-0.1061018 0.033464603 1.3000001
-0.096220538 0.033464603 1.3000001
-0.092550166 0.03347747 1.3005002
-0.08800891 0.032648608 1.3003335
-0.082633793 0.033464603 1.3000001
-0.077693157 0.033464603 1.3000001
-0.073987685 0.033464603 1.3000001
-0.069126718 0.032265402 1.3015001
-0.12267521 -0.026014147 1.3055
-0.11775924 -0.026024111 1.3060001
-0.1127958 -0.026024111 1.3060001
-0.10774979 -0.026004184 1.3050001
-0.094110787 -0.026004184 1.3050001
-0.077991977 -0.026004184 1.3050001
-0.073088303 -0.026024111 1.3060001
-0.069365725 -0.026024111 1.3060001
-0.1291244 -0.022330558 1.3080001
-0.064500913 -0.021086089 1.3080001
-0.12917376 -0.01735884 1.3085001
-0.064476252 -0.017346526 1.3075001
-0.12922312 -0.011138848 1.309
-0.064451598 -0.012365347 1.307
-0.064451598 -0.0073912777 1.307
-0.064476252 -0.0024186086 1.3075001
-0.12922312 0.0025607736 1.309
-0.064451598 0.0025568611 1.307
-0.12922312 0.0075424546 1.309
-0.066884011 0.0087677343 1.3060001
-0.06440229 0.0075251684 1.3060001
-0.1291244 0.012514567 1.3080001
-0.066832788 0.012485866 1.3050001
-0.064352974 0.012485866 1.3050001
-0.1290257 0.01747907 1.307
-0.066832788 0.017452322 1.3050001
-0.064352974 0.017452322 1.3050001
-0.1290257 0.022453137 1.307
-0.066909611 0.022445025 1.3065001
-0.064426944 0.022445025 1.3065001
-0.12917376 0.027459159 1.3085001
-0.066909611 0.02741624 1.3065001
-0.064426944 0.02741624 1.3065001
-0.066884011 0.032376487 1.3060001
-0.06440229 0.032376487 1.3060001
-0.12272267 0.036104184 1.3060001
-0.11775924 0.036104184 1.3060001
-0.11288217 0.036131829 1.307
-0.10799749 0.036159471 1.3080001
-0.10310522 0.03618712 1.309
-0.098130383 0.03618712 1.309
-0.093155548 0.03618712 1.309
-0.088180706 0.03618712 1.309
-0.08317361 0.036173295 1.3085001
-0.078201622 0.036173295 1.3085001
-0.073200226 0.036159471 1.3080001
-0.069471948 0.036159471 1.3080001
-0.12932184 -0.013640101 1.3100001
-0.12932184 -0.0074082431 1.3100001
-0.12932184 -0.0024227565 1.3100001
-0.12932184 0.03247565 1.3100001
-0.067140073 0.036242411 1.3110001
-0.06479679 0.036325343 1.314
-0.13001287 -0.026243303 1.317
-0.12731661 -0.02620345 1.3150001
-0.085094728 -0.028793026 1.319
-0.081335098 -0.028793026 1.319
-0.067447349 -0.026243303 1.317
-0.064944729 -0.026243303 1.317
-0.064944729 -0.023737241 1.317
-0.13021031 0.03646357 1.319
-0.12751025 0.036408279 1.317
-0.11007542 0.038943887 1.3180001
-0.1253873 -0.028836684 1.3210001
-0.12171309 -0.028858513 1.322
-0.11686633 -0.028902173 1.3240001
-0.11179273 -0.028891258 1.3235002
-0.10672197 -0.028880343 1.3230001
-0.1015791 -0.028847598 1.3215001
-0.096519753 -0.028836684 1.3210001
-0.091464199 -0.028825769 1.3205001
-0.087667562 -0.028814854 1.3200001
-0.076380119 -0.028814854 1.3200001
-0.071444094 -0.028847598 1.3215001
-0.13321982 -0.023863407 1.3240001
-0.13311921 0.027762964 1.3230001
-0.1253873 0.03903253 1.3210001
-0.12162197 0.03903253 1.3210001
-0.11664519 0.039047305 1.3215001
-0.11283619 0.03903253 1.3210001
-0.085417293 0.039121173 1.3240001
-0.08164341 0.039121173 1.3240001
-0.07658311 0.039106399 1.3235002
-0.071579717 0.039121173 1.3240001
-0.097104281 -0.031540219 1.3290001
-0.086970329 -0.031528354 1.3285
-0.081859715 -0.031504616 1.3275001
-0.076871485 -0.031528354 1.3285
-0.073112749 -0.031540219 1.3290001
-0.13332045 -0.021360144 1.325
-0.13332045 -0.017578214 1.325
-0.1336223 0.03292188 1.3280001
-0.10720597 0.039268911 1.3290001
-0.10184766 0.039150722 1.325
-0.096885078 0.039180268 1.3260001
-0.091776371 0.039150722 1.325
-0.087999634 0.039150722 1.325
-0.11066005 0.04167201 1.325
-0.10814222 0.04167201 1.325
-0.12263282 -0.031611413 1.332
-0.11770535 -0.031647012 1.3335001
-0.11259469 -0.031635147 1.3330001
-0.10748878 -0.031623282 1.3325
-0.10230885 -0.031587683 1.3310001
-0.092122696 -0.031563949 1.33
-0.070640445 -0.031563949 1.33
-0.13139494 -0.029054979 1.3310001
-0.12886572 -0.029054979 1.3310001
-0.12624156 0.041829262 1.33
-0.12249614 0.041844986 1.3305001
-0.1174842 0.041860711 1.3310001
-0.11369037 0.041860711 1.3310001
-0.087329902 0.041955061 1.3340001
-0.082229696 0.041939337 1.3335001
-0.077132344 0.041923612 1.3330001
-0.072038785 0.041907888 1.3325
-0.12822378 -0.031741943 1.3375001
-0.106581 0.042049415 1.337
-0.10261633 0.041986518 1.335
-0.097542673 0.041986518 1.335
-0.092469022 0.041986518 1.335
-0.13523221 -0.026781321 1.3440001
-0.061168313 0.029482368 1.3440001
-0.061168313 0.032039806 1.3440001
-0.13287573 -0.031943664 1.3460001
-0.13563469 0.024440009 1.348
-0.13317187 0.039859869 1.3490001
-0.063911892 0.038547799 1.348
-0.12538858 0.044960424 1.348
-0.1215909 0.044977099 1.3485
-0.11650959 0.044993777 1.3490001
-0.074213021 0.044993777 1.3490001
-0.13583593 0.021907412 1.35
-0.13203634 0.042474002 1.3505001
-0.064006716 0.042458273 1.35
-0.13080209 0.045060486 1.3510001
-0.12813994 0.045027129 1.35
-0.11146531 0.045027129 1.35
-0.10637355 0.045043807 1.3505001
-0.083277985 0.045043807 1.3505001
-0.078116022 0.045027129 1.35
-0.071702696 0.045027129 1.35
